ply
format ascii 1.0
element vertex 705
property float x
property float y
property float z
property uchar red
property uchar green
property uchar blue
end_header
-17.909574093809915 -24.456198586796138 -99.17948507689 0 0 255
16.957790393947835 15.01916322159034 -98.00105546222888 125 125 125
13.737977121897472 -3.649007400872941 -92.39409646111943 0 255 255
-3.8125166340461085 -11.645253621950157 -92.57893175908193 255 255 0
42.286301242499285 20.028741401864742 -101.22957906302899 125 125 125
24.807483618665916 19.040029248933514 -91.55659659414114 125 125 125
34.92333148036764 11.815744249516975 -99.49876859027727 125 125 125
-5.4011701797669085 -21.52289163938985 -90.44044435331598 255 255 0
-37.15394668749609 25.18813666755353 -95.44196556058687 125 125 125
-14.554840417645163 29.688666367832926 -108.5854937347425 125 125 125
20.186087454690163 -11.423326018828027 -95.09403204368918 0 255 255
-14.188369533285785 29.589636344025898 -109.35991212259555 125 125 125
10.326103894935457 -16.44716525448053 -82.35004816637614 255 0 255
-38.25547743844366 22.91744297560505 -99.46147047472563 125 125 125
23.572705983890618 -4.642627294506204 -97.16076395755917 255 128 0
-19.43161088079811 -23.62236055524957 -109.31663845020891 0 0 255
-7.560003941410655 -16.784007593896217 -83.44944709219172 255 255 0
14.478731207928789 -27.042844438641392 -102.67872796044605 0 255 255
-41.08226499453673 16.473368626077097 -114.9878697331597 125 125 125
29.02003680182901 6.762728641197453 -96.6041300380492 255 128 0
-21.865920766851858 -19.535188632747897 -111.88119370341619 0 255 0
17.330400052198723 11.39314922035478 -94.10976881132885 125 125 125
16.191917345862976 13.662559486948382 -99.97984462201752 125 125 125
-6.7037426265808335 -18.064028248084494 -85.58781508569216 255 255 0
23.33943797534492 -1.2799350967154253 -93.18476528258597 255 128 0
18.366435382455133 -0.8396127985423204 -90.78263613933937 0 255 255
36.615372062335304 3.0456390443516392 -117.13018308625821 128 0 255
42.81213332759337 19.72162908979806 -106.2942242511186 125 125 125
-37.4728140394236 11.607526272707615 -103.84231928299859 125 125 125
0.04363071533325069 20.560569868541066 -103.88065923669433 125 125 125
22.394005329017222 15.594625735690332 -91.81579355852266 125 125 125
33.068386666059304 -5.382260978606912 -111.84611146201246 255 128 0
27.10721353006235 29.29206699901171 -91.80018612746927 125 125 125
-34.75276440927672 28.94094221441316 -96.7920735034299 125 125 125
37.33429809313739 32.791380764646185 -97.97734785588602 125 125 125
-2.3392379267141257 14.825512804776565 -102.9241203511358 125 125 125
0.7149492949223353 -29.61346995077787 -107.9760638104751 255 255 0
27.16520908813651 0.6348597050381974 -98.70657230341644 255 128 0
40.71305979197251 14.003757407920613 -110.6751945776248 125 125 125
23.109501286638746 -25.055938747329638 -110.61550288919385 255 128 0
20.599411223182035 29.819942032013333 -120.96424012908575 125 125 125
-20.366324069999553 -17.660217636580157 -98.60558327946082 0 255 0
32.5808079823474 -5.637709841195836 -101.83543479262562 255 128 0
31.95881535655001 -7.770324334298277 -107.63953292455213 255 128 0
-18.063375891344975 26.750238987596653 -102.86086285064853 125 125 125
-24.49464618634048 31.880415172002714 -90.75784805863815 125 125 125
-20.693763781569775 29.13972277697806 -109.80483989006235 125 125 125
39.93964310818411 28.812624320709944 -98.9535001506751 125 125 125
-2.6604034146300646 25.5500859081618 -104.59979826007869 125 125 125
-30.345588750953933 -1.9290626323175606 -104.11551998896144 0 255 0
18.5852222072627 10.279853516974274 -90.82099045532743 125 125 125
-9.222861931874935 29.56674902959192 -111.37484804004761 125 125 125
-16.719822880422086 20.808762482048802 -100.0316618504142 125 125 125
8.568207893527722 -21.818390963748413 -89.04865506824508 255 0 255
-8.716754302515989 -7.16037150384747 -89.54135808551173 255 255 0
21.10297559575254 -6.606832996284845 -89.6659615725983 0 255 255
40.6753874527405 25.722732113721335 -112.75145881218955 125 125 125
-36.8574174036319 9.6108116801508 -107.96958595115566 125 125 125
-39.55902746195909 15.225669556539602 -105.46801313501686 125 125 125
-31.21549215718846 -1.405081418094834 -109.67462395038214 255 0 0
-18.683618711224316 16.600413810632542 -89.90515501410484 125 125 125
14.869064026726495 -28.198657870706718 -111.0790486047905 0 255 255
34.943317604735995 31.43124444310556 -116.00199598976354 125 125 125
24.330182552516767 31.30228816989166 -112.83872577865095 125 125 125
-23.77003875855654 21.481736589840814 -88.27019011137455 125 125 125
-29.055383295420278 28.210090751549117 -88.72852525457954 125 125 125
-15.838386330822429 -10.17643958229822 -89.41696275898508 0 0 255
-18.910508695785275 -4.077433023169717 -89.39517877198615 0 0 255
-15.331763023585847 -1.9307589644636944 -87.93359661193139 0 0 255
-17.296122403893317 -18.860841763118223 -97.61441077698987 0 0 255
-35.94025661355472 7.789286585771132 -108.39902547177479 255 0 0
-18.953805044317274 29.11718004525581 -110.60428672933446 125 125 125
26.35390517808068 16.536432934052776 -93.17236060099489 125 125 125
31.31911455246276 2.675025298612622 -100.46357791496388 255 128 0
-38.90713381424283 13.523394852005147 -107.7936472617995 125 125 125
-17.825856902014397 16.67001432152263 -94.14756971557175 125 125 125
-6.40482934082012 28.593593909391405 -118.69013004303659 125 125 125
28.950792522928758 -6.563564752312867 -99.22700221980033 255 128 0
-0.5922487639881924 -29.07298949916244 -104.55802313237498 255 255 0
30.805977536182862 -6.311198035536412 -100.43670060948592 255 128 0
-21.485514534166832 -3.289959635906982 -95.97455993278257 0 255 0
38.2007054741152 8.296444401626083 -104.23507703925884 125 125 125
-29.484121052248156 -5.057977084650537 -111.54832373659264 0 255 0
-18.808227751475997 -24.062614207361307 -105.65417658517472 0 0 255
5.275829430783315 -28.10633864045795 -99.38147252623031 255 0 255
-10.131516555658951 29.10172333297654 -114.02204147860843 125 125 125
3.6304523841127088 -20.040799891450895 -81.63511321856177 255 0 255
-11.57830331888786 14.21848798569356 -102.61003970407907 125 125 125
18.84279971473324 -19.503767775400565 -96.3697952086659 0 255 255
-12.633320101145285 29.17734857326017 -104.93294759380919 125 125 125
26.1106872827748 2.993757527660848 -95.13559217077223 255 128 0
26.213523261223 -22.64078961311694 -111.61429420413045 255 128 0
8.473049211949078 4.075848451464103 -101.49299186619108 255 0 255
10.688927917347993 -28.782518760780018 -108.45715134069833 255 0 255
28.20920291568097 -17.568971522807686 -111.19561368851618 255 128 0
20.287710484891484 28.15307388619175 -99.10863312608514 125 125 125
34.51842395103024 -1.5473632338369674 -110.00177883017005 128 0 255
38.69508703452027 29.981005093593247 -103.62831044089961 125 125 125
-34.911835442835425 23.99808111341892 -91.83916443023806 125 125 125
29.202356979550697 30.395813922580775 -120.49821131627053 125 125 125
-18.07304290155277 -4.1465551154656834 -88.4885784881044 0 0 255
-19.65948860492192 31.18107131641191 -94.89838594447664 125 125 125
-3.284456646208425 -21.57661191854922 -86.22642728213681 255 255 0
-33.68839593301093 21.190755532303243 -91.80585848072401 125 125 125
18.90035424247699 -22.20585465268633 -97.22053018058384 0 255 255
21.591322381886787 -2.678667289835394 -91.80686424407307 0 255 255
-15.555781343503874 -26.19262585013767 -104.13372909586225 0 0 255
37.131413858349134 32.19793718757185 -102.53652117490324 125 125 125
10.504910456021307 -20.817072365828285 -90.303017051353 255 0 255
26.25071775079946 31.074938777410882 -115.02268600251982 125 125 125
26.965072950895177 18.907990719665165 -89.52552594470411 125 125 125
26.81389893735063 33.99470658513623 -96.46586550463441 125 125 125
-19.24320377209338 19.870613709767085 -91.00400133235985 125 125 125
9.378944698624105 28.81450708747749 -105.39725876475755 125 125 125
-25.319759023284234 31.4878057294433 -88.67813037275367 125 125 125
-17.923482854628865 -22.057480891914256 -98.35314101091181 0 0 255
-34.02560311827446 4.68987675301592 -105.81081846287357 255 0 0
-35.76407280522537 7.4918747089662485 -108.2213552685163 255 0 0
21.579600788053376 18.2184673638106 -93.03287073622965 125 125 125
-16.011815253319707 -12.172686806905396 -94.06924857993741 0 0 255
-27.409147225349198 -7.957582791669182 -106.46648158476184 0 255 0
38.24116672527963 7.90482437082189 -109.31017486367773 128 0 255
2.653846508464407 23.391303215997823 -104.38676585659083 125 125 125
-10.549910268771304 -28.79399105730875 -111.08429731082234 0 0 255
-7.857761392073617 -9.818086011063128 -90.5276350745867 255 255 0
-38.060329622503254 23.89133178560015 -93.92054146425028 125 125 125
-33.766617757915 27.782188250644136 -113.61404206709503 125 125 125
10.25486235864685 30.919505001978145 -110.00518866923048 125 125 125
-22.01397451404508 5.547892836648993 -88.9818630716136 0 255 0
-2.8628894220532954 -17.09015118302244 -86.08850823669185 255 255 0
-40.6737375102913 18.252676452945522 -105.58003991481003 125 125 125
1.3622882750199599 -29.054940677433866 -104.40723122808753 255 255 0
20.543040575410803 31.25971906934433 -111.68794816222744 125 125 125
-6.191323924448913 -29.53792671853265 -110.62310000566326 255 255 0
-22.884147502665854 -12.042764750114513 -98.18570613819541 0 255 0
-16.93813842683011 -7.726928552020998 -92.24808994618968 0 0 255
11.027997497587922 -12.434922880726397 -88.63764846521693 255 0 255
-11.35542939729397 0.43315817104260823 -93.63031235695308 0 0 255
25.731860687298713 30.468070832515703 -118.72844128152241 125 125 125
36.950291444265524 31.52080681212321 -107.39308353340822 125 125 125
24.311047938555063 30.365163591641625 -118.85538095975012 125 125 125
-24.842096393418707 31.911517926249267 -90.42723662119181 125 125 125
37.33035941505105 5.007553124617564 -115.49074908352367 128 0 255
24.421169965717628 -0.4990510137618295 -93.75246708308691 255 128 0
-10.541397674464623 30.06906772397259 -107.64972490521892 125 125 125
-19.65147053066343 28.979661152326468 -92.50126714755635 125 125 125
37.72619773442285 28.179528255287135 -119.8928657102128 125 125 125
-19.88084368226209 28.51836802222379 -114.10472125610558 125 125 125
5.755231585003371 -21.32432942741618 -85.71096664790178 255 0 255
-0.7782325109379489 7.641268621260829 -101.83349805996099 255 255 0
-14.738350500911443 10.180685236561917 -98.46747827911729 125 125 125
-35.222844675764975 28.5728178548586 -93.43075272069848 125 125 125
-1.725528597742012 -23.475809505859118 -95.73043169746776 255 255 0
16.233692460363475 -14.32271815643556 -85.88131933773678 0 255 255
14.123244321731274 11.854338308713615 -102.84768231766445 125 125 125
-38.78635758450503 21.452160078493417 -104.5321783527345 125 125 125
-17.89687421651986 -18.88417158800687 -97.84841900509558 0 0 255
-24.290570512073668 29.297791791862178 -107.43599689225945 125 125 125
20.809141891047545 30.315343060650402 -117.85855316076507 125 125 125
18.065013697938703 15.96640812845415 -97.00072711028339 125 125 125
-2.0415477200234484 24.28914498005117 -104.41653156034523 125 125 125
20.88762725855762 11.992658565722039 -92.5428288687072 125 125 125
-33.617631522346464 27.632627160082453 -114.6314554917949 125 125 125
-3.430684745861301 17.204393352823008 -103.27166177416414 125 125 125
9.034680685903961 30.478180226807957 -112.38318498420834 125 125 125
29.953723638702982 31.11986574522036 -94.4336107396679 125 125 125
-11.941140303611084 2.4582278786800766 -97.07515050591657 0 0 255
-10.977111852994636 -1.7639894842754973 -90.65213658491191 0 0 255
13.040529546654492 -27.339124211599533 -102.0096358292055 0 255 255
1.9242523268991931 -20.846716636976705 -83.69672340546653 255 0 255
-15.53091458142902 11.145332540430985 -94.46992312793789 125 125 125
-3.1761798592647894 28.88746000722187 -118.01527764659781 125 125 125
40.8567670519736 14.471888592151632 -109.5866664257401 125 125 125
-27.225677188596602 31.961438491366394 -88.82385046261399 125 125 125
-22.643168047288505 -16.241023814337183 -102.84034554572601 0 255 0
-27.85738228933228 7.004353900472652 -95.19058781798947 0 255 0
-5.136029696098481 30.247501153973054 -108.53576513047962 125 125 125
23.100052894936766 17.64387666713735 -92.37874936872755 125 125 125
-0.8386868355009995 10.107134328262967 -102.21908178959188 125 125 125
-3.358910067698438 30.335553429281216 -108.63792951369864 125 125 125
-15.393617321772734 29.710954196764785 -108.12671664809753 125 125 125
7.524748073503269 16.54018237082063 -103.42681756554398 125 125 125
-20.16522813660784 28.325158859719227 -90.49444118828417 125 125 125
-36.50097628001304 8.37050702808639 -110.77531049933927 125 125 125
-17.277923943940678 17.678169995329245 -97.02355743228712 125 125 125
-34.31483970796903 30.215744648394953 -92.05099263775934 125 125 125
-4.057384975766667 -27.529421686104275 -96.48366114272918 255 255 0
18.191101607463374 -11.337098994955692 -85.96821809505013 0 255 255
41.86267993816307 17.182692803839984 -107.78701139803358 125 125 125
-13.501494484156048 6.363276134950887 -95.22727025783318 0 0 255
14.004747660757891 8.910752331765416 -101.75155521273835 125 125 125
-8.005631885730775 -28.1178795440258 -103.7623019010253 255 255 0
21.046252443127702 32.187335874367676 -99.6290135837941 125 125 125
-36.75107759740665 24.325100896405225 -108.27897268232734 125 125 125
-27.748595716933664 7.359550213218403 -94.4344025875711 0 255 0
20.450034312807198 25.617830806173696 -93.2308740601029 125 125 125
27.281938029875914 33.73319490428916 -98.32289923112872 125 125 125
-25.34990932772002 7.769223097781012 -91.74184642991341 0 255 0
25.380703128372392 22.78868776820913 -91.67950243452813 125 125 125
0.078633049395794 -12.971218668306074 -93.98439691321 255 255 0
-14.778656341711871 -6.26515672576821 -87.4610247975002 0 0 255
31.435133403876232 -7.909817483685083 -100.62210708395251 255 128 0
-23.81576625863646 30.841462345023885 -97.69173194947633 125 125 125
-9.197108737908215 -10.422244254486333 -88.05688382053134 0 0 255
41.13636626422022 26.360205723465814 -106.18510810469746 125 125 125
1.9553655456124093 15.436959575033036 -103.12178034787448 125 125 125
26.530663924829152 28.07838214549859 -91.25855417199138 125 125 125
-1.8729087617699367 -21.388882297118457 -92.52797653160084 255 255 0
-8.610434991036248 29.73307975192703 -110.53605192645786 125 125 125
-23.86753671704781 -14.066549641995435 -103.541279784511 0 255 0
24.72446617369226 -24.306636968166714 -110.86234707627138 255 128 0
4.7850221843460385 -29.27478243840383 -106.65212435328127 255 0 255
-6.431718592834835 -15.911773056425014 -85.11966757084578 255 255 0
26.855703552076697 8.574302139166404 -92.25226789201993 125 125 125
-18.89622042420257 -24.692636300723525 -109.60212791125396 0 0 255
-40.42902786285571 15.845910803887525 -110.55038605649618 125 125 125
-2.1613677516637613 30.30897253984779 -109.25927780946412 125 125 125
19.702451464283655 25.930167905209363 -99.69229545192688 125 125 125
32.095814222946 -7.164066321038495 -104.95746693712015 255 128 0
29.56199582512203 9.847772311594175 -95.16485342796416 125 125 125
-17.413829730966896 -23.425182687950183 -98.31733981509672 0 0 255
-38.627395786835166 20.3088411846447 -116.37876324327266 125 125 125
-21.00033243448457 30.096513467825197 -103.53924328763021 125 125 125
-16.10342972559209 2.9864099685872016 -90.18706010214356 0 0 255
-7.672660390098096 27.45133051618162 -104.7794805459327 125 125 125
0.6871198281777838 -7.05002432635036 -97.6665923325961 255 255 0
-3.1763344366061954 12.734741765019985 -102.57612499464075 125 125 125
41.88717018532491 16.52550964773037 -115.17942770496472 125 125 125
0.6673332718023097 -22.96763160382205 -95.6281257314088 255 255 0
30.634434211376387 -10.472312105073131 -101.0925759893343 255 128 0
-2.2414880821317174 -28.155380487793284 -99.41967665346341 255 255 0
-12.42336790918213 -26.524785741676155 -100.18778545504107 0 0 255
20.589034023165922 -2.7179217068596033 -89.19622885456482 0 255 255
23.070353915672573 -23.824640400978637 -102.01838350972122 255 128 0
-19.3126550216862 8.186846560353423 -90.1406447039445 125 125 125
-17.929665586863603 -5.470628802577026 -90.3222098798173 0 0 255
31.8608042842894 4.496371672824788 -100.2415457029994 255 128 0
-38.38295988450865 22.804683024936867 -98.65922806329235 125 125 125
20.066653552603242 26.888968771529193 -97.68149714829218 125 125 125
-3.2361648061461716 5.602801103114872 -101.45535701849043 255 255 0
-35.186948346039 25.59989349914836 -119.04108623622261 125 125 125
-15.661609674867572 22.4052651665893 -103.79830814630799 125 125 125
-19.269108647431157 13.335993934273715 -90.85026022407502 125 125 125
-3.540550678033319 7.312364879856547 -101.71648117329488 255 255 0
0.1677378022993475 -17.227378212143478 -85.90109797957737 255 255 0
41.34307324463964 24.995787736734716 -112.04569879634093 125 125 125
10.039298920728612 7.53067501638996 -102.07235952236735 255 0 255
-6.703006709208654 -11.920048531335521 -89.78744870367775 255 255 0
-7.7664648971633765 -10.784782915486662 -89.60834860142246 255 255 0
4.8139525050985155 27.262107354049306 -105.04547262042702 125 125 125
-2.9074157468500297 -12.33184576148502 -93.2586219417822 255 255 0
-15.780380009047883 29.88802232008489 -106.84305326900139 125 125 125
23.566592589896903 2.4324149611087806 -89.88448657848684 255 128 0
-34.31448219000302 30.270332652260763 -91.59480533331855 125 125 125
-15.740183163057939 -18.023044070634736 -96.72804957722727 0 0 255
-36.52974072613774 8.051711816466653 -112.62523545711285 255 0 0
-32.97535286349739 26.714119229410876 -90.18513567619853 125 125 125
-6.700413360674815 27.826292363967816 -104.86136607204388 125 125 125
-38.681978033061114 13.53371114950256 -105.63143645095046 125 125 125
-37.549520836431434 23.553211532098782 -103.80881728030991 125 125 125
-17.445783184272354 14.733128290261797 -95.00324233894459 125 125 125
-32.328890698795455 28.562394012511316 -109.13961914876832 125 125 125
34.90325559530462 32.06596588276391 -111.9068989165786 125 125 125
-19.855138110076567 -17.31819672029266 -98.33055726290581 0 255 0
-30.384380618291104 -3.080928126196574 -110.18892317603738 0 255 0
11.943413727538736 -19.03721504761846 -86.39985074061525 255 0 255
-34.52823072721718 28.65476972453128 -102.3007738371931 125 125 125
26.92850992883551 30.157744793225223 -121.17340427458124 125 125 125
22.624830321848005 -24.393132519088006 -104.43784764887297 0 255 255
22.95433255993242 18.60140527581257 -91.21725526565216 125 125 125
-12.858543189578306 -18.26155909052047 -95.40455580832365 0 0 255
12.93082601471898 0.9354902718062135 -100.02424351796147 0 255 255
4.1640273074067915 -10.55436381699617 -95.44829390110505 255 0 255
-31.13762785788633 0.1893714316111799 -101.04121786710517 255 0 0
34.23392320770011 -2.107457190659337 -108.3862041346548 128 0 255
-8.407055810007108 0.0213794284787463 -99.0055894926415 255 255 0
2.953154223824121 -28.895180300244572 -103.3606644176458 255 0 255
36.69188538987438 4.367071961828718 -105.5271973738037 128 0 255
-38.483097967507135 14.077175294685638 -101.07286047848848 125 125 125
34.58715719375539 -1.4927804750753242 -111.22208755075471 128 0 255
30.7430414335713 13.290834941020174 -96.27304161857901 125 125 125
37.04921078610899 4.207774264233001 -116.42648525773916 128 0 255
-32.27778989219513 27.927739298619926 -113.23838258654897 125 125 125
18.51684099133033 -2.7451226934848885 -86.88354505109938 0 255 255
31.888653902932838 34.384722010259715 -95.86784489018086 125 125 125
-20.09256407523735 16.298298371034456 -88.35565387697905 125 125 125
8.27844672686673 -27.971229925419337 -100.31441940446055 255 0 255
43.23899600937716 24.03510549918349 -104.15364915403786 125 125 125
0.9285981293685907 -21.9400015122959 -95.01534522588594 255 255 0
-15.097982310414514 10.627767721545004 -96.34362724547898 125 125 125
-19.27067809674838 3.8568696374535305 -88.07523294091105 0 0 255
2.124736845490749 -13.93911040915105 -91.43356883883718 255 0 255
-13.103991441077543 -23.17733877096748 -97.18896922231255 0 0 255
-26.438652049210933 28.67660567577314 -110.62119888599301 125 125 125
34.10806473355684 -2.4091635584634865 -108.22597185487311 128 0 255
-38.84855868588794 20.21426311300772 -114.13340210990478 125 125 125
-18.057379692680637 -25.763967309634438 -107.04768051540267 0 0 255
-36.50427969992377 24.74216056092522 -92.33058051294739 125 125 125
-29.330340399641855 -4.673566776681728 -108.20088004883445 0 255 0
-40.32908586460028 17.318179194025774 -102.31558864925199 125 125 125
-13.051887909983765 -12.218786782136556 -88.78972786585874 0 0 255
-21.225567148255468 -3.656866273183419 -95.39429862419466 0 255 0
36.91283807708559 31.979827065650763 -105.20112731945741 125 125 125
33.104755178295335 -4.310825465740113 -101.772659315002 255 128 0
11.364224534354236 -18.274997748596853 -83.47163570216132 255 0 255
13.753539981672542 -2.446286251316571 -94.89518168787686 0 255 255
1.3904993885098222 7.477955766969416 -101.85920211166686 255 255 0
29.09559847517714 -11.127933267871363 -100.00581803220288 255 128 0
-8.434786071139479 -13.022836289331599 -85.24730608387304 255 255 0
26.659395741472494 11.562016819057959 -90.64371795060109 125 125 125
39.24728082051372 26.81435561258803 -116.73248071046304 125 125 125
21.78115689871159 -20.541040070116214 -97.82521361481353 0 255 255
23.627592608380894 33.52996952717851 -98.25479855126687 125 125 125
-18.742078988859497 -7.562983394729422 -96.12448985475632 0 0 255
-14.55245600051168 14.04820651546146 -100.16468589616504 125 125 125
8.504503057776903 -18.269177755343033 -82.97783215166494 255 0 255
-10.42319407696523 -27.45616707595894 -102.68136857263522 0 0 255
-2.3569216828819575 -22.234768762481657 -89.82234142141259 255 255 0
19.385547027222035 16.580417069422474 -94.00773800216217 125 125 125
32.111453568342064 20.341110435356075 -93.35596432274299 125 125 125
27.182697284039957 -19.20650734756382 -101.4256401085345 255 128 0
-33.339569648287736 27.069658667993316 -118.354812019216 125 125 125
-22.345372799558273 25.228514350680108 -88.05810995361333 125 125 125
39.28044402737552 26.773586686639394 -116.72230593394309 125 125 125
-19.589931758832048 30.599515092381612 -100.83646348345079 125 125 125
-2.360685348845848 -27.398450327572984 -96.13011402976474 255 255 0
36.64208735136584 3.1733461248037735 -116.50962223203972 128 0 255
9.42577715797838 30.512782232525606 -112.30787905756704 125 125 125
1.6023647632792606 13.456277684361126 -102.80254309695235 125 125 125
-17.20796403177556 29.075906235819946 -111.52631374898979 125 125 125
-11.251996820668884 -0.5979955012175528 -91.88933508356394 0 0 255
-20.902959473723456 -20.912826765565256 -109.68115829102541 0 255 0
13.875543581889582 -4.709196898213568 -90.81242611642499 0 255 255
34.107016142040564 -2.956607972297753 -113.827468651883 128 0 255
17.68742891986264 1.467143163456028 -90.12940221590426 0 255 255
-9.827638267681891 29.26029188535356 -113.11707681872252 125 125 125
2.6134753610454626 -22.085156629562594 -87.34142254419514 255 0 255
-26.452680707968238 6.085829006248274 -92.62087571580278 0 255 0
14.025696934155318 -11.825332912341898 -86.24063118283634 0 255 255
5.78444024143339 29.793864739741633 -115.55945534147908 125 125 125
29.795204648577855 -8.18192326164608 -99.52426050311949 255 128 0
-5.298854305250666 -2.5736796881719 -98.85629743798498 255 255 0
-10.506705713827806 -1.9434727944454657 -96.7070828559469 0 0 255
33.61750294821638 24.065700044433147 -95.65096981333588 125 125 125
25.531252560444383 30.580980916605665 -117.92717871167909 125 125 125
32.523891203023105 -6.160083302915378 -105.73044709811894 255 128 0
-2.9863945441543414 -19.667144067592023 -81.59028448609429 255 255 0
-5.307738192678259 -20.845007509850472 -88.67892003491902 255 255 0
20.994250803816136 31.947691512238777 -100.33290487764 125 125 125
-19.63562699784805 -22.118687008974437 -103.77595245561812 0 0 255
30.362016324752886 -9.149130201384816 -100.44001163880631 255 128 0
-21.08029819624901 -10.070855617659412 -97.63501383692696 0 255 0
-20.55514398165059 -19.64002033970862 -100.11132268930697 0 255 0
-16.510245979345914 -12.945543935885919 -95.65483232446232 0 0 255
-9.759884194932878 4.56928353371924 -99.81219056105381 0 0 255
8.534807755851343 27.29100256701593 -105.13815286435171 125 125 125
6.4319423483954035 -17.759103719008912 -84.90951888512397 255 0 255
36.7797745474372 33.21698384240432 -99.5138869445619 125 125 125
29.49925821212506 -13.922694092150381 -107.14472643978968 255 128 0
12.755199682423184 -28.24183460473749 -107.48756137604072 0 255 255
-4.94074094501541 -20.564331405367646 -86.54866798749529 255 255 0
-2.3226822247685432 -18.67579486221554 -83.49870142649249 255 255 0
20.002739988568585 -18.3166928253581 -96.60704439182649 0 255 255
14.209482921788803 -11.661466402023567 -86.00954545723326 0 255 255
-26.319438121442825 28.889841527567306 -109.29536792407052 125 125 125
5.76193504976918 -21.597364182746787 -92.25077647871947 255 0 255
18.62930477750179 -11.325738083250712 -89.68881398615027 0 255 255
13.63201592452648 -14.158909249700994 -85.43931955913727 0 255 255
16.394859796902512 -14.9798237487919 -87.38226214637635 0 255 255
12.47268887220789 30.322326072188407 -114.67784064074917 125 125 125
-40.45998561616749 14.611732743976857 -116.95828650334715 125 125 125
-12.786197331993257 2.5665431984090774 -92.5533915791689 0 0 255
27.106604992003437 -19.521210216356245 -102.68902527855911 255 128 0
-35.82301874596152 9.482824280217184 -98.90562330364817 125 125 125
0.9190642353258951 1.7607034434324187 -100.95070637395705 255 255 0
-3.2823308910243947 15.476844493695188 -103.00401404628096 125 125 125
33.52570883755003 32.15187053202048 -110.83650543948741 125 125 125
24.42713239463619 -18.516041999815886 -98.80870845103678 255 128 0
30.25497461630364 -11.640945347644815 -103.2725485866414 255 128 0
24.05887810769496 29.10330794602917 -90.63974128521532 125 125 125
-23.705322196371704 29.212775039723677 -108.20269745900981 125 125 125
19.0806494584292 25.094021484382175 -104.33057930948867 125 125 125
16.81756723419122 -25.88703971027895 -99.28597387931255 0 255 255
-29.045001151599163 15.586843146727432 -90.00715121637793 125 125 125
-31.066629357377522 25.622093672892927 -88.95978431084556 125 125 125
-28.440850647087963 28.11719904346068 -113.46372027386704 125 125 125
14.397431225696925 30.493861993172406 -114.29921923216881 125 125 125
15.785430470017426 -12.569476332475187 -83.49368800249451 0 255 255
20.2278069049639 -13.99334175209738 -96.32862288974368 0 255 255
-8.781226607646202 -29.011378470743985 -110.14594321326577 255 255 0
-8.1317898616523 -27.062690207349764 -97.34702015507023 255 255 0
21.283407370345568 32.7846539008235 -94.12937081828657 125 125 125
0.6328733284987033 7.63470676148237 -101.8658713858845 255 255 0
-30.37417932109183 25.584977668757826 -88.74492495020498 125 125 125
-10.743776153152835 19.327991737689626 -103.43177386886755 125 125 125
18.853953181417335 22.368685041822154 -100.4546601719965 125 125 125
40.92561639900379 26.870624965910714 -99.3234462259219 125 125 125
26.140276782374137 -6.1393526234463325 -98.0331867572761 255 128 0
-23.79458532819735 -14.516818769619492 -105.08935635208928 0 255 0
5.49302751663517 -21.169844205704585 -86.21875008565955 255 0 255
-8.16161786739958 28.469035588101633 -118.83012545783444 125 125 125
19.714751720688586 22.588185182637023 -95.54264391387952 125 125 125
-37.84965929880794 24.040421160420568 -92.95053753575733 125 125 125
-3.1912443402813717 -18.287836891713365 -82.42046602217324 255 255 0
39.52864147530475 14.829794596614294 -101.80654912451595 125 125 125
-7.553498408115262 18.48883099331434 -103.37561490892493 125 125 125
-27.158782243000918 15.045725456275441 -88.11117747774384 125 125 125
-13.090096758386604 21.33868555989184 -103.69179863040074 125 125 125
1.7747225794300356 0.717961138772655 -100.80729268147103 255 0 255
-7.936289413129207 29.793877638812805 -105.14091130312448 125 125 125
-37.41502257605427 22.51493499563407 -114.43175243124358 125 125 125
23.008307826272826 30.03233024800564 -120.5048251600906 125 125 125
18.751695870294213 -25.499579229134426 -101.2804992821969 0 255 255
37.40879038096469 11.834364517380306 -101.3555178463757 125 125 125
-26.1671572091536 -9.46603062307587 -102.29839749098672 0 255 0
-2.3557027061103555 6.876612061179699 -101.67613450577619 255 255 0
23.617958147250828 31.425449562464046 -111.77907422379782 125 125 125
26.3502703512472 -22.23880351979851 -111.02580435812975 255 128 0
26.479571859311818 30.111730046417847 -92.54576193883582 125 125 125
-19.394387059122177 13.397855134235638 -90.76993896786846 125 125 125
-37.74234990135687 12.607446016958473 -101.41292216327031 125 125 125
37.08238645641534 4.980265376546747 -109.34415689026025 128 0 255
31.01721681111539 32.75261830496308 -106.03123764121587 125 125 125
-11.71291561519493 1.2262802980567897 -93.4900504964687 0 0 255
17.221047373432228 8.520418367930022 -95.82806707505188 125 125 125
5.145726226530998 -21.15143378036989 -86.44506474571298 255 0 255
36.2108058140668 7.679511760200684 -101.95498947800955 128 0 255
17.139369748764647 -7.640157188343284 -87.14579432989417 0 255 255
34.61750720593535 -0.8342799249556685 -105.23828684003493 128 0 255
4.627168853634055 29.252464222941594 -118.6043411300286 125 125 125
2.5445235324702433 -9.021929400250931 -96.31634436478645 255 0 255
39.258644802753764 28.195754032344833 -109.28404728326345 125 125 125
-11.220678845268864 7.430236241863257 -100.06797895790648 0 0 255
-15.16849024463684 -21.125241345883115 -97.32628651961248 0 0 255
-10.279088293313952 -26.008828994693623 -97.13629833928702 0 0 255
13.740562750870136 13.70814112740673 -103.12957552867188 125 125 125
3.0917092768637375 -11.256149010024327 -95.06517114733454 255 0 255
-22.999496166557638 -0.2806387677920248 -93.88146896154427 0 255 0
-26.149544917748134 21.667501290316146 -86.88840096811626 125 125 125
16.03755453824904 3.623909152717331 -94.27616821933033 0 255 255
36.40764865145077 3.3568644844355466 -108.54638487734681 128 0 255
-28.98101275397388 -3.7270011471263613 -100.23377176198703 0 255 0
-19.644469275733552 29.190066347039128 -92.85218525583524 125 125 125
43.3666636622183 21.44569373627788 -102.9416400377745 125 125 125
-7.694483972211283 -11.46892756673479 -89.24170352996939 255 255 0
-1.8193610724342233 -30.027493405705595 -110.95909461202487 255 255 0
7.8977033089814155 -18.513554761663674 -82.85121083496757 255 0 255
-22.368704772633155 3.219098195050106 -89.58800828107513 0 255 0
20.28290959916552 -7.783603719183233 -90.0425327184163 0 255 255
20.9206653240321 20.642045062214763 -91.64554430859911 125 125 125
29.01828782544376 31.144775354197485 -115.61457315685118 125 125 125
-2.051874312460214 6.269341480244485 -101.58801013026496 255 255 0
19.88172359923905 30.45536407959833 -116.60971090297065 125 125 125
16.70339583310333 17.635461154661307 -103.3053696234928 125 125 125
-31.476069229418044 10.000581184115116 -96.2473890539051 125 125 125
-30.1444949787531 -2.539335149474552 -105.25511570029657 0 255 0
-1.6629734961948994 -29.49617187726244 -107.53194838947424 255 255 0
40.70405187661319 25.82648408277086 -112.00107832030595 125 125 125
-21.74290516487676 -18.91961272573539 -107.67665905332116 0 255 0
7.230980917689573 29.952205447266255 -115.08576245380127 125 125 125
21.21852619414741 33.051304297054095 -97.62080044668072 125 125 125
26.6449254856639 -13.012458959987063 -99.32561827488207 255 128 0
23.745234346506045 -11.745421434854636 -96.78450250772012 255 128 0
-34.78180631157588 4.589782074840604 -113.39697047167752 255 0 0
19.222667954224963 -8.969714798663354 -90.42832476136768 0 255 255
11.184463140196351 -4.643617431323816 -98.35711479140876 255 0 255
-26.016908078534847 0.5588716086114833 -98.47494555603274 0 255 0
-35.31321767311495 11.258154918967445 -97.39265882287363 125 125 125
38.491740105106 8.754957043423161 -107.06455330703481 125 125 125
19.88429524344481 32.056861990766635 -106.31617415856265 125 125 125
-13.327876545810117 28.801780973658282 -114.74792086434951 125 125 125
-36.52449315250934 19.37064878857661 -93.62404235092247 125 125 125
-11.5418478832212 1.388854584944946 -95.05181664073935 0 0 255
13.19459857091538 7.933533654842478 -101.99210340076392 0 255 255
-11.72122385074174 29.02715425733731 -113.903567599665 125 125 125
1.9882893015968652 12.282587880699385 -102.62747440639878 125 125 125
-9.245712497342241 28.90249081864202 -115.63609535251149 125 125 125
16.76296200232885 5.520129709019273 -92.2427365896704 0 255 255
5.537447589192169 -18.926526509827607 -82.2800423491111 255 0 255
-36.81298133283083 10.731283709461055 -101.999183905522 125 125 125
14.100087326363738 22.184974734395674 -104.46852763277658 125 125 125
-18.977695780062692 28.078274489650862 -101.33690139894964 125 125 125
-2.558932616985324 15.828928800273435 -103.076413928962 125 125 125
14.143533481240956 30.942376201070964 -111.32058595591423 125 125 125
37.67335121160668 6.863730193507863 -105.29680961299783 128 0 255
25.725890987377518 28.29632282681052 -91.20792136640826 125 125 125
-6.338139016460039 -10.045831048660226 -92.36054737555227 255 255 0
-38.38307254385624 21.670096767613096 -108.2423664113473 125 125 125
-14.11451556663878 8.056548189186689 -94.65216533054459 0 0 255
10.794356904280319 7.36734010169495 -102.06460108365809 255 0 255
-40.67935223710437 16.54920243696769 -109.41124258812414 125 125 125
-11.060219428833287 -0.27949631014678716 -95.90330100324951 0 0 255
-28.582304695695754 29.718962633860894 -103.11442318745281 125 125 125
11.198828414022785 14.672783317247358 -103.22076626424715 125 125 125
16.914113213536275 5.444325832629736 -94.04581962793024 0 255 255
-34.1161667523986 30.59548100151288 -91.5779434470625 125 125 125
-20.85161660853198 26.569098465570022 -89.21228547783458 125 125 125
34.441170672625375 -1.140642890941952 -103.8174958943248 128 0 255
-7.001677626453277 -4.822004559876696 -97.59448731584651 255 255 0
-11.025802913195937 -5.125838194659742 -88.91570623515862 0 0 255
15.565873766707744 -8.656193239718503 -87.65258778104499 0 255 255
5.976689549303074 30.8494223517733 -108.84646582892373 125 125 125
12.363750359550933 -20.08492030618817 -89.66737341716261 0 255 255
-6.6617728403415795 28.665468985131493 -118.13156628090886 125 125 125
38.756936799080655 9.742505101407655 -103.78513922298306 125 125 125
-37.68402077186116 11.228289695361628 -107.70240822527785 125 125 125
20.41907596251116 -22.45962709689682 -97.91671277494729 0 255 255
20.31991355995536 -17.321805092246123 -96.69394347157863 0 255 255
-2.4434208689878947 -4.038468533890384 -98.84505617692622 255 255 0
-15.554065482855485 0.7078693046981739 -89.41848669070404 0 0 255
-23.601893307416354 27.583359523152115 -88.08288820844989 125 125 125
-1.5222443465477549 -13.419753149406631 -92.4263697954078 255 255 0
39.163847068701585 27.158647119628863 -115.46837387023777 125 125 125
11.286127827028896 6.8386967545214805 -101.99326544864633 255 0 255
11.59907616620654 -16.95527871718342 -81.69216931976149 255 0 255
29.66491381310453 8.042846098210171 -96.45714869216832 255 128 0
16.780912914454607 16.362301970720022 -100.40529693647315 125 125 125
19.52228528820216 25.968923999609824 -103.06502828581102 125 125 125
8.549640421991556 30.016156190194415 -115.17070009043391 125 125 125
5.143043405020161 12.247701089770278 -102.69670269457298 125 125 125
35.41089283831544 31.547251302861877 -115.4322222678396 125 125 125
5.714801715570054 30.83267212085167 -108.85562607258609 125 125 125
-17.61098312980216 18.253640083685625 -95.89756273449414 125 125 125
18.682075234985458 -25.4925416402635 -101.05536095436446 0 255 255
21.863994930294105 22.837184133962094 -91.9605490472673 125 125 125
-35.90746616851251 26.954494300909282 -97.67828649377309 125 125 125
-3.26017597807598 -17.665454120907278 -84.48039739834442 255 255 0
5.336297113847599 -16.32854173004224 -86.83446124111619 255 0 255
-37.51481849154931 10.351978175785968 -110.45961313614168 125 125 125
-12.139419590629615 2.971828620849433 -96.70841114673615 0 0 255
-27.017006358559534 -6.846794433092172 -99.78820669787946 0 255 0
-7.4599676399404125 29.318328237892345 -113.63461438364283 125 125 125
33.94669538859221 1.6749682574793323 -101.81053440738023 128 0 255
-8.616089073805336 29.71876198301455 -110.62595946875386 125 125 125
24.147244801879694 -0.4499336619768893 -92.98007157707845 255 128 0
-4.778173151029213 -27.547377485313717 -96.99374888139151 255 255 0
-4.0428079523633285 -18.122424216222917 -81.81738977161424 255 255 0
27.450347309624707 23.840907386412685 -90.40157547318304 125 125 125
27.41035983947765 -19.010905463100784 -105.31516702939714 255 128 0
-23.97962806964617 -15.031732121768002 -109.37696322247676 0 255 0
38.463417566910266 21.910734497323443 -98.23936088585418 125 125 125
-20.9213836119879 -15.594458049728294 -98.49222533044133 0 255 0
-23.068818617774244 -17.21270321463259 -111.6479966079518 0 255 0
-32.16195572294174 10.486340673443964 -96.2851830839623 125 125 125
14.791280037828122 -18.070567421331635 -93.06072315492017 0 255 255
-27.265544153196615 -7.707249130807846 -103.87925280938833 0 255 0
7.441033837974658 -26.296896689773593 -96.01767501436616 255 0 255
32.584423077395606 18.67631524317685 -95.64739710587715 125 125 125
-29.11437846420945 -5.643160271746449 -110.9823764050477 0 255 0
5.6556413575876325 12.959575651022636 -102.82056805969061 125 125 125
-9.679533682097341 14.699182100335195 -102.73043436147861 125 125 125
-13.03930306177807 -26.813221566328664 -102.94547364844502 0 0 255
-19.11898649638939 12.794415145675524 -90.23190587645807 125 125 125
-32.90244612517302 20.444092755884984 -91.62174227831343 125 125 125
-5.490446481113218 -28.883492775372098 -105.80427318404773 255 255 0
-23.40615306792707 -15.401422459156858 -105.83243042102944 0 255 0
43.12657571326694 20.80229736989225 -103.33397558588052 125 125 125
13.23026345933413 19.565095133419128 -104.03674522303508 125 125 125
12.846836951114597 29.95305971469147 -117.19228936921994 125 125 125
1.1034747797369897 5.6360839192786605 -101.56331005508197 255 255 0
3.1070435514838475 -13.05918832936964 -93.86704346678756 255 0 255
0.7548910688299572 -21.37663944189125 -86.5501494543997 255 255 0
-8.711198692244258 -19.971734655642162 -94.62858752384871 255 255 0
3.2402731263392903 13.08694093103007 -102.78335160881416 125 125 125
11.407352671943983 -9.562216772752016 -90.63286739784009 255 0 255
24.06357575814472 -8.395820535949861 -96.84561056798522 255 128 0
-33.07463008649478 27.884667893044078 -113.21552458185388 125 125 125
-1.5494044955813204 -6.546371035930099 -97.96616349578335 255 255 0
-4.5971048232031935 -12.617202228212975 -89.8116332121472 255 255 0
16.275614849324086 6.782112725411902 -97.94027439075732 0 255 255
-10.744504141226804 -2.9252172245778434 -91.6673939326847 0 0 255
27.48811754329078 -0.7121554584245907 -99.45930419858912 255 128 0
10.757290781855701 4.977213296538363 -101.68762882530712 255 0 255
-19.094868557184558 18.920333954196032 -91.2369189516957 125 125 125
41.20069844203022 15.253252177348513 -110.46672045282008 125 125 125
3.041447954844062 5.7988876691401305 -101.63476298406201 255 0 255
19.500170391817377 -12.61798684274322 -94.2048196591341 0 255 255
28.122943558677605 17.608526339359663 -92.54301755389311 125 125 125
3.1161754233298846 1.84621104205254 -101.01614752822603 255 0 255
30.052022927011784 26.397910294025355 -91.3149893701591 125 125 125
-16.627691624720885 16.270328104464262 -98.22088880415846 125 125 125
-37.62193611410952 12.041714556312327 -103.08822769296039 125 125 125
5.436282291456845 30.386752183742132 -111.61730724692063 125 125 125
34.11533215466694 13.121247999330741 -98.58726543116177 125 125 125
10.795307257443227 -8.162325681947307 -94.11771851643687 255 0 255
-38.45350853537984 22.46548248170617 -100.55359638324529 125 125 125
-24.571207383437603 10.39265213850014 -91.5655351473311 125 125 125
40.79763918384478 26.858439503719925 -99.26315515482015 125 125 125
8.589195788940925 -11.070299518318128 -94.1388989849807 255 0 255
30.265081417984046 -12.49358185518127 -112.30049549489867 255 128 0
0.6043591523734037 -12.238561048913205 -94.7776959441941 255 255 0
18.88375047468547 -12.771337490836917 -90.90670842591534 0 255 255
-5.152963484706058 -19.276731215282457 -83.57873572686388 255 255 0
-24.610281996474814 14.960282069308855 -86.84123276124846 125 125 125
20.788028159657184 12.79507000091454 -92.95216287577689 125 125 125
15.416282009640808 -11.457049461539693 -83.30546805509783 0 255 255
-11.76149068867114 7.835699470599174 -99.87585990838014 0 0 255
10.585509669445647 -19.912874142791424 -86.69922532780576 255 0 255
41.83067432167567 23.015341694621966 -119.26447139644564 125 125 125
16.522485271014716 5.262159842713848 -92.69792187388356 0 255 255
-10.384749838588524 -1.3764200727512848 -97.4469582909158 0 0 255
-19.327193186901017 29.316881737473118 -97.97287988434893 125 125 125
-10.382248016113572 -25.047383415625767 -97.07259043458639 0 0 255
3.131895716384392 -13.559907488802551 -93.079160618383 255 0 255
13.133029439287624 -19.297714817408384 -89.09871860703583 0 255 255
20.869718554649104 31.167417247777202 -101.06512664479975 125 125 125
-22.366208447826324 14.826409451699712 -89.18532033981964 125 125 125
36.45638626412615 10.671272147440474 -101.19123275845591 125 125 125
-27.031057253769745 27.05397403167276 -88.12551677332763 125 125 125
19.842536524931518 16.946444507076283 -93.91727582580164 125 125 125
-18.720663214539655 24.23878381200474 -95.722721321066 125 125 125
16.957348269557578 30.571690255677144 -114.76188232676881 125 125 125
20.44294711518456 27.788675744169097 -93.64684956889808 125 125 125
26.55184841221002 -21.726225556360372 -110.9807224719678 255 128 0
23.843898175965794 31.716366438604105 -109.99406436910117 125 125 125
-18.978063327257384 -23.139475228580565 -102.67065460082983 0 0 255
28.317365398878568 31.160587765091528 -115.24932755954718 125 125 125
-21.15452602013742 28.419005016905597 -114.26447710849796 125 125 125
-22.42614698099344 -16.318716402453223 -101.19065483695891 0 255 0
27.166532575682222 12.492711493408779 -91.08471148148075 125 125 125
-31.18450964597003 16.13631629269183 -92.136985671605 125 125 125
27.858922126041435 20.89530087416761 -89.72914464724192 125 125 125
-13.31767394109576 5.826471592633166 -95.61009351053934 0 0 255
-19.590445453393354 -23.673087183410455 -111.0572879284141 0 0 255
27.922391925470848 29.128441926380297 -92.82157676329808 125 125 125
-8.676121218916398 -5.658121278350509 -94.7950694592698 255 255 0
15.413137681777354 19.95807796151255 -104.1500988182237 125 125 125
24.009712808168864 -13.643876229341583 -98.16071896437826 255 128 0
8.326933128727566 -21.818132834772204 -90.0388824337851 255 0 255
-20.8539145810864 -5.22236435431535 -96.77855082818473 0 255 0
35.854419586624296 2.279776586120131 -105.28119139166856 128 0 255
38.371059407220386 8.169560577906143 -109.95519172910784 128 0 255
-9.38762538705914 -23.06467209949027 -96.45025180074475 0 0 255
21.77208540256198 1.013749077198594 -88.22116780388582 0 255 255
-2.8363029154970105 -10.721235261352978 -95.73585847884861 255 255 0
22.972806289187304 -23.740832673515534 -101.11602889510512 255 128 0
-19.514363678989646 -0.3535023731934184 -89.83730486423555 0 0 255
22.84914877747276 -12.55949916091994 -96.8954217169594 255 128 0
-6.801742032145107 -5.934559702007935 -97.2297546992221 255 255 0
-19.90447137407249 0.6714516618291869 -91.11421241973225 0 255 0
-23.87923132929685 -15.806906147504622 -112.27820534149672 0 255 0
-26.491936141124228 -1.2899106740734934 -98.79942902998768 0 255 0
24.57110823263069 -2.396903974120252 -97.96156712442203 255 128 0
-22.150497613087307 0.6466918215197133 -92.18347935113906 0 255 0
-19.114600739541793 29.064173945585946 -101.01703883977015 125 125 125
-37.133293917579394 10.993016636565164 -103.70508115485988 125 125 125
43.187513423462505 24.33541118525853 -102.90490005173675 125 125 125
-37.78593770574953 11.276334908264667 -108.41980966716433 125 125 125
10.534261330621266 -18.415220192173187 -83.60128520450375 255 0 255
36.18432968020629 32.26889417954907 -97.35892907364531 125 125 125
-6.935764607852251 5.943701353488457 -101.421228352539 255 255 0
23.079681177175548 17.58218048562554 -92.36831656150568 125 125 125
-7.305575440862032 -28.93658637461082 -108.0907361007206 255 255 0
-8.95746574243125 -19.28686418816511 -89.14152999582107 255 255 0
10.670996788277922 -21.594315824316165 -94.67741417679528 255 0 255
22.15165569516665 -24.529950792349 -103.79674914775103 0 255 255
2.772508449442108 29.080732490290618 -119.01058831034031 125 125 125
-12.389677488828521 -26.26914036475684 -98.56684242338312 0 0 255
-0.7153475027775612 30.149202193087575 -110.83026337008542 125 125 125
-14.916463357016958 -5.054803436916949 -88.50442218090352 0 0 255
17.235383978388374 16.228734322996974 -98.78952865517793 125 125 125
-22.58031326172572 28.843282983348963 -111.0007900688401 125 125 125
8.670071972672833 -20.37160866146753 -82.56242775059104 255 0 255
29.323659672063947 32.92035701182337 -94.24203323944639 125 125 125
12.628213918162281 3.467996190302482 -100.80619091999658 0 255 255
8.238906368022807 5.197675715322092 -101.66354155102954 255 0 255
42.52828084165196 19.229983933676216 -103.99053642215742 125 125 125
27.153513431964203 31.738971018002054 -111.09371157400423 125 125 125
32.75593166487364 31.15909109366534 -116.92866385446597 125 125 125
-22.633816730457028 -18.155218781944917 -112.24113061442426 0 255 0
3.213800300159279 6.3673708286589985 -101.72807083332042 255 0 255
0.3196982977349794 30.811376900397523 -106.96303927813113 125 125 125
20.804482467144883 26.82021727040103 -91.90506903488293 125 125 125
42.38062306570458 25.560201324381765 -99.93862941501578 125 125 125
-27.764510799094705 -8.397756897153565 -111.98013183713243 0 255 0
7.436439312532328 -20.793295004549833 -83.09300416808591 255 0 255
-10.369527071085706 -12.159925132688798 -85.2825681905022 0 0 255
31.64172045837547 33.86791647242545 -99.09689573686954 125 125 125
16.687883436174186 -10.919774382300304 -83.08185211257297 0 255 255
-15.479490767889763 16.71764059331939 -100.04108193403374 125 125 125
-39.23126759593256 20.93909774205031 -102.74216027527581 125 125 125
32.062309667405 -8.103106489550784 -113.7438416933171 255 128 0
-13.337890126798507 -17.137773729581816 -95.33942638515249 0 0 255
26.724845684818373 5.4200486878143135 -94.66242637003363 255 128 0
-23.984610448305578 28.381330574387782 -113.44226563910478 125 125 125
28.013166152107793 -13.00798246778738 -99.99824133230241 255 128 0
-10.523848570258227 25.354072216142278 -104.38280308298306 125 125 125
26.906061067128153 31.944331879901423 -109.68056884702193 125 125 125
-20.098312359311297 -21.0843482570832 -102.98716548840332 0 255 0
42.82719243581738 19.955042234496428 -104.28442758559696 125 125 125
-18.396991919740447 -24.072847020382845 -101.84921649529323 0 0 255
27.313701921609105 32.965730664979866 -103.2681969915173 125 125 125
26.954340335873624 7.007708611571016 -94.03173970103425 255 128 0
-24.162635438257155 3.4175517760430716 -92.0147580014562 0 255 0
-18.16138756599206 -25.55988325616345 -107.01129783138697 0 0 255
-18.317217052486487 23.28564660429578 -96.50349147278841 125 125 125
40.93759284611874 25.471818781917495 -112.2898884842765 125 125 125
27.501377109287873 17.408107826317085 -92.16666612361706 125 125 125
-10.70406942174262 2.9556039313532882 -98.96172377881769 0 0 255
16.922490386285457 -15.044480853527496 -88.67381176114523 0 255 255
6.9101422449686805 -29.72767267123689 -110.74984042640993 255 0 255
38.60031676694459 27.925901653320036 -115.24391455067683 125 125 125
26.537890362773577 -21.643953280327906 -109.77301519579652 255 128 0
-4.425716343097598 30.434111256819076 -107.60309497098005 125 125 125
23.10443351694571 30.38475192302615 -118.2755656761847 125 125 125
